-180000.000000 -180000.000000 -60000.000000 180000.000000 180000.000000 0.000000
360000.000000 360000.000000 600.000000
2 2 101
5800.044142 8029.980144 3460.024593 4486.119755 2720.012612 3334.942690
-180000.000000 -180000.000000 -60000.000000 8029.980144 4486.119755 3334.942690
180000.000000 -180000.000000 -60000.000000 8029.980144 4486.119755 3334.942690
-180000.000000 180000.000000 -60000.000000 8029.980144 4486.119755 3334.942690
180000.000000 180000.000000 -60000.000000 8029.980144 4486.119755 3334.942690
-180000.000000 -180000.000000 -59400.000000 8029.081976 4485.989402 3334.579164
180000.000000 -180000.000000 -59400.000000 8029.081976 4485.989402 3334.579164
-180000.000000 180000.000000 -59400.000000 8029.081976 4485.989402 3334.579164
180000.000000 180000.000000 -59400.000000 8029.081976 4485.989402 3334.579164
-180000.000000 -180000.000000 -58800.000000 8028.183522 4485.858929 3334.215563
180000.000000 -180000.000000 -58800.000000 8028.183522 4485.858929 3334.215563
-180000.000000 180000.000000 -58800.000000 8028.183522 4485.858929 3334.215563
180000.000000 180000.000000 -58800.000000 8028.183522 4485.858929 3334.215563
-180000.000000 -180000.000000 -58200.000000 8027.284543 4485.728233 3333.851821
180000.000000 -180000.000000 -58200.000000 8027.284543 4485.728233 3333.851821
-180000.000000 180000.000000 -58200.000000 8027.284543 4485.728233 3333.851821
180000.000000 180000.000000 -58200.000000 8027.284543 4485.728233 3333.851821
-180000.000000 -180000.000000 -57600.000000 8026.384721 4485.597181 3333.487853
180000.000000 -180000.000000 -57600.000000 8026.384721 4485.597181 3333.487853
-180000.000000 180000.000000 -57600.000000 8026.384721 4485.597181 3333.487853
180000.000000 180000.000000 -57600.000000 8026.384721 4485.597181 3333.487853
-180000.000000 -180000.000000 -57000.000000 8025.483498 4485.465537 3333.123510
180000.000000 -180000.000000 -57000.000000 8025.483498 4485.465537 3333.123510
-180000.000000 180000.000000 -57000.000000 8025.483498 4485.465537 3333.123510
180000.000000 180000.000000 -57000.000000 8025.483498 4485.465537 3333.123510
-180000.000000 -180000.000000 -56400.000000 8024.579839 4485.332862 3332.758516
180000.000000 -180000.000000 -56400.000000 8024.579839 4485.332862 3332.758516
-180000.000000 180000.000000 -56400.000000 8024.579839 4485.332862 3332.758516
180000.000000 180000.000000 -56400.000000 8024.579839 4485.332862 3332.758516
-180000.000000 -180000.000000 -55800.000000 8023.672246 4485.198524 3332.392467
180000.000000 -180000.000000 -55800.000000 8023.672246 4485.198524 3332.392467
-180000.000000 180000.000000 -55800.000000 8023.672246 4485.198524 3332.392467
180000.000000 180000.000000 -55800.000000 8023.672246 4485.198524 3332.392467
-180000.000000 -180000.000000 -55200.000000 8022.758075 4485.061404 3332.024658
180000.000000 -180000.000000 -55200.000000 8022.758075 4485.061404 3332.024658
-180000.000000 180000.000000 -55200.000000 8022.758075 4485.061404 3332.024658
180000.000000 180000.000000 -55200.000000 8022.758075 4485.061404 3332.024658
-180000.000000 -180000.000000 -54600.000000 8021.833989 4484.920092 3331.654195
180000.000000 -180000.000000 -54600.000000 8021.833989 4484.920092 3331.654195
-180000.000000 180000.000000 -54600.000000 8021.833989 4484.920092 3331.654195
180000.000000 180000.000000 -54600.000000 8021.833989 4484.920092 3331.654195
-180000.000000 -180000.000000 -54000.000000 8020.894712 4484.772354 3331.279665
180000.000000 -180000.000000 -54000.000000 8020.894712 4484.772354 3331.279665
-180000.000000 180000.000000 -54000.000000 8020.894712 4484.772354 3331.279665
180000.000000 180000.000000 -54000.000000 8020.894712 4484.772354 3331.279665
-180000.000000 -180000.000000 -53400.000000 8019.931163 4484.614351 3330.898639
180000.000000 -180000.000000 -53400.000000 8019.931163 4484.614351 3330.898639
-180000.000000 180000.000000 -53400.000000 8019.931163 4484.614351 3330.898639
180000.000000 180000.000000 -53400.000000 8019.931163 4484.614351 3330.898639
-180000.000000 -180000.000000 -52800.000000 8018.930431 4484.440623 3330.507659
180000.000000 -180000.000000 -52800.000000 8018.930431 4484.440623 3330.507659
-180000.000000 180000.000000 -52800.000000 8018.930431 4484.440623 3330.507659
180000.000000 180000.000000 -52800.000000 8018.930431 4484.440623 3330.507659
-180000.000000 -180000.000000 -52200.000000 8017.873408 4484.243086 3330.101612
180000.000000 -180000.000000 -52200.000000 8017.873408 4484.243086 3330.101612
-180000.000000 180000.000000 -52200.000000 8017.873408 4484.243086 3330.101612
180000.000000 180000.000000 -52200.000000 8017.873408 4484.243086 3330.101612
-180000.000000 -180000.000000 -51600.000000 8016.736965 4484.011958 3329.674308
180000.000000 -180000.000000 -51600.000000 8016.736965 4484.011958 3329.674308
-180000.000000 180000.000000 -51600.000000 8016.736965 4484.011958 3329.674308
180000.000000 180000.000000 -51600.000000 8016.736965 4484.011958 3329.674308
-180000.000000 -180000.000000 -51000.000000 8015.488371 4483.733392 3329.216986
180000.000000 -180000.000000 -51000.000000 8015.488371 4483.733392 3329.216986
-180000.000000 180000.000000 -51000.000000 8015.488371 4483.733392 3329.216986
180000.000000 180000.000000 -51000.000000 8015.488371 4483.733392 3329.216986
-180000.000000 -180000.000000 -50400.000000 8014.072521 4483.384080 3328.714899
180000.000000 -180000.000000 -50400.000000 8014.072521 4483.384080 3328.714899
-180000.000000 180000.000000 -50400.000000 8014.072521 4483.384080 3328.714899
180000.000000 180000.000000 -50400.000000 8014.072521 4483.384080 3328.714899
-180000.000000 -180000.000000 -49800.000000 8012.423081 4482.935955 3328.150295
180000.000000 -180000.000000 -49800.000000 8012.423081 4482.935955 3328.150295
-180000.000000 180000.000000 -49800.000000 8012.423081 4482.935955 3328.150295
180000.000000 180000.000000 -49800.000000 8012.423081 4482.935955 3328.150295
-180000.000000 -180000.000000 -49200.000000 8010.444760 4482.348706 3327.497673
180000.000000 -180000.000000 -49200.000000 8010.444760 4482.348706 3327.497673
-180000.000000 180000.000000 -49200.000000 8010.444760 4482.348706 3327.497673
180000.000000 180000.000000 -49200.000000 8010.444760 4482.348706 3327.497673
-180000.000000 -180000.000000 -48600.000000 8008.036269 4481.579472 3326.729932
180000.000000 -180000.000000 -48600.000000 8008.036269 4481.579472 3326.729932
-180000.000000 180000.000000 -48600.000000 8008.036269 4481.579472 3326.729932
180000.000000 180000.000000 -48600.000000 8008.036269 4481.579472 3326.729932
-180000.000000 -180000.000000 -48000.000000 8005.069181 4480.573914 3325.812705
180000.000000 -180000.000000 -48000.000000 8005.069181 4480.573914 3325.812705
-180000.000000 180000.000000 -48000.000000 8005.069181 4480.573914 3325.812705
180000.000000 180000.000000 -48000.000000 8005.069181 4480.573914 3325.812705
-180000.000000 -180000.000000 -47400.000000 8001.322375 4479.238463 3324.686830
180000.000000 -180000.000000 -47400.000000 8001.322375 4479.238463 3324.686830
-180000.000000 180000.000000 -47400.000000 8001.322375 4479.238463 3324.686830
180000.000000 180000.000000 -47400.000000 8001.322375 4479.238463 3324.686830
-180000.000000 -180000.000000 -46800.000000 7996.598777 4477.489713 3323.299582
180000.000000 -180000.000000 -46800.000000 7996.598777 4477.489713 3323.299582
-180000.000000 180000.000000 -46800.000000 7996.598777 4477.489713 3323.299582
180000.000000 180000.000000 -46800.000000 7996.598777 4477.489713 3323.299582
-180000.000000 -180000.000000 -46200.000000 7990.584105 4475.194645 3321.566885
180000.000000 -180000.000000 -46200.000000 7990.584105 4475.194645 3321.566885
-180000.000000 180000.000000 -46200.000000 7990.584105 4475.194645 3321.566885
180000.000000 180000.000000 -46200.000000 7990.584105 4475.194645 3321.566885
-180000.000000 -180000.000000 -45600.000000 7983.016544 4472.242420 3319.418710
180000.000000 -180000.000000 -45600.000000 7983.016544 4472.242420 3319.418710
-180000.000000 180000.000000 -45600.000000 7983.016544 4472.242420 3319.418710
180000.000000 180000.000000 -45600.000000 7983.016544 4472.242420 3319.418710
-180000.000000 -180000.000000 -45000.000000 7973.602145 4468.508581 3316.776441
180000.000000 -180000.000000 -45000.000000 7973.602145 4468.508581 3316.776441
-180000.000000 180000.000000 -45000.000000 7973.602145 4468.508581 3316.776441
180000.000000 180000.000000 -45000.000000 7973.602145 4468.508581 3316.776441
-180000.000000 -180000.000000 -44400.000000 7961.789586 4463.759701 3313.492626
180000.000000 -180000.000000 -44400.000000 7961.789586 4463.759701 3313.492626
-180000.000000 180000.000000 -44400.000000 7961.789586 4463.759701 3313.492626
180000.000000 180000.000000 -44400.000000 7961.789586 4463.759701 3313.492626
-180000.000000 -180000.000000 -43800.000000 7947.291912 4457.874196 3309.490560
180000.000000 -180000.000000 -43800.000000 7947.291912 4457.874196 3309.490560
-180000.000000 180000.000000 -43800.000000 7947.291912 4457.874196 3309.490560
180000.000000 180000.000000 -43800.000000 7947.291912 4457.874196 3309.490560
-180000.000000 -180000.000000 -43200.000000 7929.481062 4450.586023 3304.602321
180000.000000 -180000.000000 -43200.000000 7929.481062 4450.586023 3304.602321
-180000.000000 180000.000000 -43200.000000 7929.481062 4450.586023 3304.602321
180000.000000 180000.000000 -43200.000000 7929.481062 4450.586023 3304.602321
-180000.000000 -180000.000000 -42600.000000 7908.039856 4441.760661 3298.743183
180000.000000 -180000.000000 -42600.000000 7908.039856 4441.760661 3298.743183
-180000.000000 180000.000000 -42600.000000 7908.039856 4441.760661 3298.743183
180000.000000 180000.000000 -42600.000000 7908.039856 4441.760661 3298.743183
-180000.000000 -180000.000000 -42000.000000 7882.678426 4431.275096 3291.835740
180000.000000 -180000.000000 -42000.000000 7882.678426 4431.275096 3291.835740
-180000.000000 180000.000000 -42000.000000 7882.678426 4431.275096 3291.835740
180000.000000 180000.000000 -42000.000000 7882.678426 4431.275096 3291.835740
-180000.000000 -180000.000000 -41400.000000 7852.637116 4418.807186 3283.677032
180000.000000 -180000.000000 -41400.000000 7852.637116 4418.807186 3283.677032
-180000.000000 180000.000000 -41400.000000 7852.637116 4418.807186 3283.677032
180000.000000 180000.000000 -41400.000000 7852.637116 4418.807186 3283.677032
-180000.000000 -180000.000000 -40800.000000 7817.966260 4404.377740 3274.280718
180000.000000 -180000.000000 -40800.000000 7817.966260 4404.377740 3274.280718
-180000.000000 180000.000000 -40800.000000 7817.966260 4404.377740 3274.280718
180000.000000 180000.000000 -40800.000000 7817.966260 4404.377740 3274.280718
-180000.000000 -180000.000000 -40200.000000 7778.041576 4387.721501 3263.480189
180000.000000 -180000.000000 -40200.000000 7778.041576 4387.721501 3263.480189
-180000.000000 180000.000000 -40200.000000 7778.041576 4387.721501 3263.480189
180000.000000 180000.000000 -40200.000000 7778.041576 4387.721501 3263.480189
-180000.000000 -180000.000000 -39600.000000 7732.989642 4368.891135 3251.309614
180000.000000 -180000.000000 -39600.000000 7732.989642 4368.891135 3251.309614
-180000.000000 180000.000000 -39600.000000 7732.989642 4368.891135 3251.309614
180000.000000 180000.000000 -39600.000000 7732.989642 4368.891135 3251.309614
-180000.000000 -180000.000000 -39000.000000 7683.032535 4347.979662 3237.828693
180000.000000 -180000.000000 -39000.000000 7683.032535 4347.979662 3237.828693
-180000.000000 180000.000000 -39000.000000 7683.032535 4347.979662 3237.828693
180000.000000 180000.000000 -39000.000000 7683.032535 4347.979662 3237.828693
-180000.000000 -180000.000000 -38400.000000 7627.872620 4324.858998 3222.958431
180000.000000 -180000.000000 -38400.000000 7627.872620 4324.858998 3222.958431
-180000.000000 180000.000000 -38400.000000 7627.872620 4324.858998 3222.958431
180000.000000 180000.000000 -38400.000000 7627.872620 4324.858998 3222.958431
-180000.000000 -180000.000000 -37800.000000 7568.325127 4299.873102 3206.917076
180000.000000 -180000.000000 -37800.000000 7568.325127 4299.873102 3206.917076
-180000.000000 180000.000000 -37800.000000 7568.325127 4299.873102 3206.917076
180000.000000 180000.000000 -37800.000000 7568.325127 4299.873102 3206.917076
-180000.000000 -180000.000000 -37200.000000 7504.558617 4273.090370 3189.750334
180000.000000 -180000.000000 -37200.000000 7504.558617 4273.090370 3189.750334
-180000.000000 180000.000000 -37200.000000 7504.558617 4273.090370 3189.750334
180000.000000 180000.000000 -37200.000000 7504.558617 4273.090370 3189.750334
-180000.000000 -180000.000000 -36600.000000 7437.387026 4244.852738 3171.676201
180000.000000 -180000.000000 -36600.000000 7437.387026 4244.852738 3171.676201
-180000.000000 180000.000000 -36600.000000 7437.387026 4244.852738 3171.676201
180000.000000 180000.000000 -36600.000000 7437.387026 4244.852738 3171.676201
-180000.000000 -180000.000000 -36000.000000 7367.723532 4215.544424 3152.938978
180000.000000 -180000.000000 -36000.000000 7367.723532 4215.544424 3152.938978
-180000.000000 180000.000000 -36000.000000 7367.723532 4215.544424 3152.938978
180000.000000 180000.000000 -36000.000000 7367.723532 4215.544424 3152.938978
-180000.000000 -180000.000000 -35400.000000 7296.249118 4185.447411 3133.721319
180000.000000 -180000.000000 -35400.000000 7296.249118 4185.447411 3133.721319
-180000.000000 180000.000000 -35400.000000 7296.249118 4185.447411 3133.721319
180000.000000 180000.000000 -35400.000000 7296.249118 4185.447411 3133.721319
-180000.000000 -180000.000000 -34800.000000 7224.074485 4155.029170 3114.319830
180000.000000 -180000.000000 -34800.000000 7224.074485 4155.029170 3114.319830
-180000.000000 180000.000000 -34800.000000 7224.074485 4155.029170 3114.319830
180000.000000 180000.000000 -34800.000000 7224.074485 4155.029170 3114.319830
-180000.000000 -180000.000000 -34200.000000 7152.111314 4124.668119 3094.978219
180000.000000 -180000.000000 -34200.000000 7152.111314 4124.668119 3094.978219
-180000.000000 180000.000000 -34200.000000 7152.111314 4124.668119 3094.978219
180000.000000 180000.000000 -34200.000000 7152.111314 4124.668119 3094.978219
-180000.000000 -180000.000000 -33600.000000 7081.336983 4094.770034 3075.957247
180000.000000 -180000.000000 -33600.000000 7081.336983 4094.770034 3075.957247
-180000.000000 180000.000000 -33600.000000 7081.336983 4094.770034 3075.957247
180000.000000 180000.000000 -33600.000000 7081.336983 4094.770034 3075.957247
-180000.000000 -180000.000000 -33000.000000 7012.647543 4065.704544 3057.495528
180000.000000 -180000.000000 -33000.000000 7012.647543 4065.704544 3057.495528
-180000.000000 180000.000000 -33000.000000 7012.647543 4065.704544 3057.495528
180000.000000 180000.000000 -33000.000000 7012.647543 4065.704544 3057.495528
-180000.000000 -180000.000000 -32400.000000 6946.826880 4037.791498 3039.801244
180000.000000 -180000.000000 -32400.000000 6946.826880 4037.791498 3039.801244
-180000.000000 180000.000000 -32400.000000 6946.826880 4037.791498 3039.801244
180000.000000 180000.000000 -32400.000000 6946.826880 4037.791498 3039.801244
-180000.000000 -180000.000000 -31800.000000 6884.458306 4011.264476 3023.028475
180000.000000 -180000.000000 -31800.000000 6884.458306 4011.264476 3023.028475
-180000.000000 180000.000000 -31800.000000 6884.458306 4011.264476 3023.028475
180000.000000 180000.000000 -31800.000000 6884.458306 4011.264476 3023.028475
-180000.000000 -180000.000000 -31200.000000 6825.890408 3986.256955 3007.268210
180000.000000 -180000.000000 -31200.000000 6825.890408 3986.256955 3007.268210
-180000.000000 180000.000000 -31200.000000 6825.890408 3986.256955 3007.268210
180000.000000 180000.000000 -31200.000000 6825.890408 3986.256955 3007.268210
-180000.000000 -180000.000000 -30600.000000 6771.655925 3962.968114 2992.659600
180000.000000 -180000.000000 -30600.000000 6771.655925 3962.968114 2992.659600
-180000.000000 180000.000000 -30600.000000 6771.655925 3962.968114 2992.659600
180000.000000 180000.000000 -30600.000000 6771.655925 3962.968114 2992.659600
-180000.000000 -180000.000000 -30000.000000 6721.555662 3941.298884 2979.146428
180000.000000 -180000.000000 -30000.000000 6721.555662 3941.298884 2979.146428
-180000.000000 180000.000000 -30000.000000 6721.555662 3941.298884 2979.146428
180000.000000 180000.000000 -30000.000000 6721.555662 3941.298884 2979.146428
-180000.000000 -180000.000000 -29400.000000 6675.461641 3921.173739 2966.691044
180000.000000 -180000.000000 -29400.000000 6675.461641 3921.173739 2966.691044
-180000.000000 180000.000000 -29400.000000 6675.461641 3921.173739 2966.691044
180000.000000 180000.000000 -29400.000000 6675.461641 3921.173739 2966.691044
-180000.000000 -180000.000000 -28800.000000 6633.415344 3902.569156 2955.298901
180000.000000 -180000.000000 -28800.000000 6633.415344 3902.569156 2955.298901
-180000.000000 180000.000000 -28800.000000 6633.415344 3902.569156 2955.298901
180000.000000 180000.000000 -28800.000000 6633.415344 3902.569156 2955.298901
-180000.000000 -180000.000000 -28200.000000 6594.689934 3885.165608 2944.772814
180000.000000 -180000.000000 -28200.000000 6594.689934 3885.165608 2944.772814
-180000.000000 180000.000000 -28200.000000 6594.689934 3885.165608 2944.772814
180000.000000 180000.000000 -28200.000000 6594.689934 3885.165608 2944.772814
-180000.000000 -180000.000000 -27600.000000 6558.862963 3868.753972 2934.995160
180000.000000 -180000.000000 -27600.000000 6558.862963 3868.753972 2934.995160
-180000.000000 180000.000000 -27600.000000 6558.862963 3868.753972 2934.995160
180000.000000 180000.000000 -27600.000000 6558.862963 3868.753972 2934.995160
-180000.000000 -180000.000000 -27000.000000 6525.415628 3853.080217 2925.821962
180000.000000 -180000.000000 -27000.000000 6525.415628 3853.080217 2925.821962
-180000.000000 180000.000000 -27000.000000 6525.415628 3853.080217 2925.821962
180000.000000 180000.000000 -27000.000000 6525.415628 3853.080217 2925.821962
-180000.000000 -180000.000000 -26400.000000 6493.662959 3837.839825 2917.067243
180000.000000 -180000.000000 -26400.000000 6493.662959 3837.839825 2917.067243
-180000.000000 180000.000000 -26400.000000 6493.662959 3837.839825 2917.067243
180000.000000 180000.000000 -26400.000000 6493.662959 3837.839825 2917.067243
-180000.000000 -180000.000000 -25800.000000 6463.036446 3822.762704 2908.574444
180000.000000 -180000.000000 -25800.000000 6463.036446 3822.762704 2908.574444
-180000.000000 180000.000000 -25800.000000 6463.036446 3822.762704 2908.574444
180000.000000 180000.000000 -25800.000000 6463.036446 3822.762704 2908.574444
-180000.000000 -180000.000000 -25200.000000 6432.941347 3807.586330 2900.182414
180000.000000 -180000.000000 -25200.000000 6432.941347 3807.586330 2900.182414
-180000.000000 180000.000000 -25200.000000 6432.941347 3807.586330 2900.182414
180000.000000 180000.000000 -25200.000000 6432.941347 3807.586330 2900.182414
-180000.000000 -180000.000000 -24600.000000 6402.884222 3792.103138 2891.758802
180000.000000 -180000.000000 -24600.000000 6402.884222 3792.103138 2891.758802
-180000.000000 180000.000000 -24600.000000 6402.884222 3792.103138 2891.758802
180000.000000 180000.000000 -24600.000000 6402.884222 3792.103138 2891.758802
-180000.000000 -180000.000000 -24000.000000 6372.459566 3776.130227 2883.193261
180000.000000 -180000.000000 -24000.000000 6372.459566 3776.130227 2883.193261
-180000.000000 180000.000000 -24000.000000 6372.459566 3776.130227 2883.193261
180000.000000 180000.000000 -24000.000000 6372.459566 3776.130227 2883.193261
-180000.000000 -180000.000000 -23400.000000 6341.395866 3759.577628 2874.416122
180000.000000 -180000.000000 -23400.000000 6341.395866 3759.577628 2874.416122
-180000.000000 180000.000000 -23400.000000 6341.395866 3759.577628 2874.416122
180000.000000 180000.000000 -23400.000000 6341.395866 3759.577628 2874.416122
-180000.000000 -180000.000000 -22800.000000 6309.555374 3742.413946 2865.393883
180000.000000 -180000.000000 -22800.000000 6309.555374 3742.413946 2865.393883
-180000.000000 180000.000000 -22800.000000 6309.555374 3742.413946 2865.393883
180000.000000 180000.000000 -22800.000000 6309.555374 3742.413946 2865.393883
-180000.000000 -180000.000000 -22200.000000 6276.821900 3724.599278 2856.096554
180000.000000 -180000.000000 -22200.000000 6276.821900 3724.599278 2856.096554
-180000.000000 180000.000000 -22200.000000 6276.821900 3724.599278 2856.096554
180000.000000 180000.000000 -22200.000000 6276.821900 3724.599278 2856.096554
-180000.000000 -180000.000000 -21600.000000 6243.351947 3706.266009 2846.574712
180000.000000 -180000.000000 -21600.000000 6243.351947 3706.266009 2846.574712
-180000.000000 180000.000000 -21600.000000 6243.351947 3706.266009 2846.574712
180000.000000 180000.000000 -21600.000000 6243.351947 3706.266009 2846.574712
-180000.000000 -180000.000000 -21000.000000 6209.308418 3687.528002 2836.877897
180000.000000 -180000.000000 -21000.000000 6209.308418 3687.528002 2836.877897
-180000.000000 180000.000000 -21000.000000 6209.308418 3687.528002 2836.877897
180000.000000 180000.000000 -21000.000000 6209.308418 3687.528002 2836.877897
-180000.000000 -180000.000000 -20400.000000 6174.948418 3668.546367 2827.081887
180000.000000 -180000.000000 -20400.000000 6174.948418 3668.546367 2827.081887
-180000.000000 180000.000000 -20400.000000 6174.948418 3668.546367 2827.081887
180000.000000 180000.000000 -20400.000000 6174.948418 3668.546367 2827.081887
-180000.000000 -180000.000000 -19800.000000 6140.624469 3649.537946 2817.290062
180000.000000 -180000.000000 -19800.000000 6140.624469 3649.537946 2817.290062
-180000.000000 180000.000000 -19800.000000 6140.624469 3649.537946 2817.290062
180000.000000 180000.000000 -19800.000000 6140.624469 3649.537946 2817.290062
-180000.000000 -180000.000000 -19200.000000 6106.709865 3630.722440 2807.610606
180000.000000 -180000.000000 -19200.000000 6106.709865 3630.722440 2807.610606
-180000.000000 180000.000000 -19200.000000 6106.709865 3630.722440 2807.610606
180000.000000 180000.000000 -19200.000000 6106.709865 3630.722440 2807.610606
-180000.000000 -180000.000000 -18600.000000 6073.628365 3612.345505 2798.165837
180000.000000 -180000.000000 -18600.000000 6073.628365 3612.345505 2798.165837
-180000.000000 180000.000000 -18600.000000 6073.628365 3612.345505 2798.165837
180000.000000 180000.000000 -18600.000000 6073.628365 3612.345505 2798.165837
-180000.000000 -180000.000000 -18000.000000 6041.746662 3594.619592 2789.061589
180000.000000 -180000.000000 -18000.000000 6041.746662 3594.619592 2789.061589
-180000.000000 180000.000000 -18000.000000 6041.746662 3594.619592 2789.061589
180000.000000 180000.000000 -18000.000000 6041.746662 3594.619592 2789.061589
-180000.000000 -180000.000000 -17400.000000 6011.471932 3577.776489 2780.414840
180000.000000 -180000.000000 -17400.000000 6011.471932 3577.776489 2780.414840
-180000.000000 180000.000000 -17400.000000 6011.471932 3577.776489 2780.414840
180000.000000 180000.000000 -17400.000000 6011.471932 3577.776489 2780.414840
-180000.000000 -180000.000000 -16800.000000 5983.058946 3561.962428 2772.298944
180000.000000 -180000.000000 -16800.000000 5983.058946 3561.962428 2772.298944
-180000.000000 180000.000000 -16800.000000 5983.058946 3561.962428 2772.298944
180000.000000 180000.000000 -16800.000000 5983.058946 3561.962428 2772.298944
-180000.000000 -180000.000000 -16200.000000 5956.694273 3547.284041 2764.767556
180000.000000 -180000.000000 -16200.000000 5956.694273 3547.284041 2764.767556
-180000.000000 180000.000000 -16200.000000 5956.694273 3547.284041 2764.767556
180000.000000 180000.000000 -16200.000000 5956.694273 3547.284041 2764.767556
-180000.000000 -180000.000000 -15600.000000 5932.776643 3533.965011 2757.934800
180000.000000 -180000.000000 -15600.000000 5932.776643 3533.965011 2757.934800
-180000.000000 180000.000000 -15600.000000 5932.776643 3533.965011 2757.934800
180000.000000 180000.000000 -15600.000000 5932.776643 3533.965011 2757.934800
-180000.000000 -180000.000000 -15000.000000 5911.185473 3521.939810 2751.766440
180000.000000 -180000.000000 -15000.000000 5911.185473 3521.939810 2751.766440
-180000.000000 180000.000000 -15000.000000 5911.185473 3521.939810 2751.766440
180000.000000 180000.000000 -15000.000000 5911.185473 3521.939810 2751.766440
-180000.000000 -180000.000000 -14400.000000 5892.014710 3511.261538 2746.289419
180000.000000 -180000.000000 -14400.000000 5892.014710 3511.261538 2746.289419
-180000.000000 180000.000000 -14400.000000 5892.014710 3511.261538 2746.289419
180000.000000 180000.000000 -14400.000000 5892.014710 3511.261538 2746.289419
-180000.000000 -180000.000000 -13800.000000 5875.282008 3501.940595 2741.508851
180000.000000 -180000.000000 -13800.000000 5875.282008 3501.940595 2741.508851
-180000.000000 180000.000000 -13800.000000 5875.282008 3501.940595 2741.508851
180000.000000 180000.000000 -13800.000000 5875.282008 3501.940595 2741.508851
-180000.000000 -180000.000000 -13200.000000 5860.874809 3493.914663 2737.392631
180000.000000 -180000.000000 -13200.000000 5860.874809 3493.914663 2737.392631
-180000.000000 180000.000000 -13200.000000 5860.874809 3493.914663 2737.392631
180000.000000 180000.000000 -13200.000000 5860.874809 3493.914663 2737.392631
-180000.000000 -180000.000000 -12600.000000 5848.659924 3487.109779 2733.902737
180000.000000 -180000.000000 -12600.000000 5848.659924 3487.109779 2733.902737
-180000.000000 180000.000000 -12600.000000 5848.659924 3487.109779 2733.902737
180000.000000 180000.000000 -12600.000000 5848.659924 3487.109779 2733.902737
-180000.000000 -180000.000000 -12000.000000 5838.421356 3481.405759 2730.977475
180000.000000 -180000.000000 -12000.000000 5838.421356 3481.405759 2730.977475
-180000.000000 180000.000000 -12000.000000 5838.421356 3481.405759 2730.977475
180000.000000 180000.000000 -12000.000000 5838.421356 3481.405759 2730.977475
-180000.000000 -180000.000000 -11400.000000 5829.916445 3476.667498 2728.547525
180000.000000 -180000.000000 -11400.000000 5829.916445 3476.667498 2728.547525
-180000.000000 180000.000000 -11400.000000 5829.916445 3476.667498 2728.547525
180000.000000 180000.000000 -11400.000000 5829.916445 3476.667498 2728.547525
-180000.000000 -180000.000000 -10800.000000 5823.068852 3472.852515 2726.591083
180000.000000 -180000.000000 -10800.000000 5823.068852 3472.852515 2726.591083
-180000.000000 180000.000000 -10800.000000 5823.068852 3472.852515 2726.591083
180000.000000 180000.000000 -10800.000000 5823.068852 3472.852515 2726.591083
-180000.000000 -180000.000000 -10200.000000 5817.536225 3469.770111 2725.010341
180000.000000 -180000.000000 -10200.000000 5817.536225 3469.770111 2725.010341
-180000.000000 180000.000000 -10200.000000 5817.536225 3469.770111 2725.010341
180000.000000 180000.000000 -10200.000000 5817.536225 3469.770111 2725.010341
-180000.000000 -180000.000000 -9600.000000 5813.143712 3467.322888 2723.755341
180000.000000 -180000.000000 -9600.000000 5813.143712 3467.322888 2723.755341
-180000.000000 180000.000000 -9600.000000 5813.143712 3467.322888 2723.755341
180000.000000 180000.000000 -9600.000000 5813.143712 3467.322888 2723.755341
-180000.000000 -180000.000000 -9000.000000 5809.745660 3465.429705 2722.784472
180000.000000 -180000.000000 -9000.000000 5809.745660 3465.429705 2722.784472
-180000.000000 180000.000000 -9000.000000 5809.745660 3465.429705 2722.784472
180000.000000 180000.000000 -9000.000000 5809.745660 3465.429705 2722.784472
-180000.000000 -180000.000000 -8400.000000 5807.120342 3463.967037 2722.034382
180000.000000 -180000.000000 -8400.000000 5807.120342 3463.967037 2722.034382
-180000.000000 180000.000000 -8400.000000 5807.120342 3463.967037 2722.034382
180000.000000 180000.000000 -8400.000000 5807.120342 3463.967037 2722.034382
-180000.000000 -180000.000000 -7800.000000 5805.142949 3462.865352 2721.469414
180000.000000 -180000.000000 -7800.000000 5805.142949 3462.865352 2721.469414
-180000.000000 180000.000000 -7800.000000 5805.142949 3462.865352 2721.469414
180000.000000 180000.000000 -7800.000000 5805.142949 3462.865352 2721.469414
-180000.000000 -180000.000000 -7200.000000 5803.670357 3462.044910 2721.048673
180000.000000 -180000.000000 -7200.000000 5803.670357 3462.044910 2721.048673
-180000.000000 180000.000000 -7200.000000 5803.670357 3462.044910 2721.048673
180000.000000 180000.000000 -7200.000000 5803.670357 3462.044910 2721.048673
-180000.000000 -180000.000000 -6600.000000 5802.578201 3461.436425 2720.736629
180000.000000 -180000.000000 -6600.000000 5802.578201 3461.436425 2720.736629
-180000.000000 180000.000000 -6600.000000 5802.578201 3461.436425 2720.736629
180000.000000 180000.000000 -6600.000000 5802.578201 3461.436425 2720.736629
-180000.000000 -180000.000000 -6000.000000 5801.794702 3460.999905 2720.512772
180000.000000 -180000.000000 -6000.000000 5801.794702 3460.999905 2720.512772
-180000.000000 180000.000000 -6000.000000 5801.794702 3460.999905 2720.512772
180000.000000 180000.000000 -6000.000000 5801.794702 3460.999905 2720.512772
-180000.000000 -180000.000000 -5400.000000 5801.229721 3460.685130 2720.351349
180000.000000 -180000.000000 -5400.000000 5801.229721 3460.685130 2720.351349
-180000.000000 180000.000000 -5400.000000 5801.229721 3460.685130 2720.351349
180000.000000 180000.000000 -5400.000000 5801.229721 3460.685130 2720.351349
-180000.000000 -180000.000000 -4800.000000 5800.828157 3460.461402 2720.236616
180000.000000 -180000.000000 -4800.000000 5800.828157 3460.461402 2720.236616
-180000.000000 180000.000000 -4800.000000 5800.828157 3460.461402 2720.236616
180000.000000 180000.000000 -4800.000000 5800.828157 3460.461402 2720.236616
-180000.000000 -180000.000000 -4200.000000 5800.554139 3460.308735 2720.158325
180000.000000 -180000.000000 -4200.000000 5800.554139 3460.308735 2720.158325
-180000.000000 180000.000000 -4200.000000 5800.554139 3460.308735 2720.158325
180000.000000 180000.000000 -4200.000000 5800.554139 3460.308735 2720.158325
-180000.000000 -180000.000000 -3600.000000 5800.364503 3460.203080 2720.104144
180000.000000 -180000.000000 -3600.000000 5800.364503 3460.203080 2720.104144
-180000.000000 180000.000000 -3600.000000 5800.364503 3460.203080 2720.104144
180000.000000 180000.000000 -3600.000000 5800.364503 3460.203080 2720.104144
-180000.000000 -180000.000000 -3000.000000 5800.237014 3460.132050 2720.067718
180000.000000 -180000.000000 -3000.000000 5800.237014 3460.132050 2720.067718
-180000.000000 180000.000000 -3000.000000 5800.237014 3460.132050 2720.067718
180000.000000 180000.000000 -3000.000000 5800.237014 3460.132050 2720.067718
-180000.000000 -180000.000000 -2400.000000 5800.153510 3460.085527 2720.043860
180000.000000 -180000.000000 -2400.000000 5800.153510 3460.085527 2720.043860
-180000.000000 180000.000000 -2400.000000 5800.153510 3460.085527 2720.043860
180000.000000 180000.000000 -2400.000000 5800.153510 3460.085527 2720.043860
-180000.000000 -180000.000000 -1800.000000 5800.099854 3460.055633 2720.028530
180000.000000 -180000.000000 -1800.000000 5800.099854 3460.055633 2720.028530
-180000.000000 180000.000000 -1800.000000 5800.099854 3460.055633 2720.028530
180000.000000 180000.000000 -1800.000000 5800.099854 3460.055633 2720.028530
-180000.000000 -180000.000000 -1200.000000 5800.067454 3460.037581 2720.019273
180000.000000 -180000.000000 -1200.000000 5800.067454 3460.037581 2720.019273
-180000.000000 180000.000000 -1200.000000 5800.067454 3460.037581 2720.019273
180000.000000 180000.000000 -1200.000000 5800.067454 3460.037581 2720.019273
-180000.000000 -180000.000000 -600.000000 5800.049994 3460.027854 2720.014284
180000.000000 -180000.000000 -600.000000 5800.049994 3460.027854 2720.014284
-180000.000000 180000.000000 -600.000000 5800.049994 3460.027854 2720.014284
180000.000000 180000.000000 -600.000000 5800.049994 3460.027854 2720.014284
-180000.000000 -180000.000000 0.000000 5800.044142 3460.024593 2720.012612
180000.000000 -180000.000000 0.000000 5800.044142 3460.024593 2720.012612
-180000.000000 180000.000000 0.000000 5800.044142 3460.024593 2720.012612
180000.000000 180000.000000 0.000000 5800.044142 3460.024593 2720.012612
